64 64
217 213 210 208 208 208 210 213 217 222 229 236 232 229 226 224 224 224 226 229 232 237 236 222 208 195 182 170 158 147 137 128 121 116 113 112 113 116 121 128 137 147 158 170 182 176 160 144 128 113 97 81 65 50 35 22 16 22 35 50 65 81 97 113
202 197 194 192 192 192 194 197 202 208 214 222 217 213 210 208 208 208 210 213 217 222 229 214 200 186 173 160 147 135 124 115 107 101 97 96 97 101 107 115 124 135 147 160 173 176 160 144 128 112 96 80 64 48 32 16 0 16 32 48 64 80 96 112
187 182 178 176 176 176 178 182 187 193 200 208 202 197 194 192 192 192 194 197 202 208 214 208 193 178 164 150 137 124 113 102 93 86 81 80 81 86 93 102 113 124 137 150 164 176 160 144 128 113 97 81 65 50 35 22 16 22 35 50 65 81 97 113
172 167 163 160 160 160 163 167 172 178 186 193 187 182 178 176 176 176 178 182 187 193 200 202 187 172 157 143 128 115 102 90 80 71 65 64 65 71 80 90 102 115 128 143 157 172 163 147 131 116 101 86 71 57 45 35 32 35 45 57 71 86 101 116
157 151 147 144 144 144 147 151 157 164 173 178 172 167 163 160 160 160 163 167 172 178 186 195 182 167 151 136 121 107 93 80 67 57 50 48 50 57 67 80 93 107 121 136 151 167 167 151 136 121 107 93 80 67 57 50 48 50 57 67 80 93 107 121
143 136 131 128 128 128 131 136 143 150 160 164 157 151 147 144 144 144 147 151 157 164 173 182 178 163 147 131 116 101 86 71 57 45 35 32 35 45 57 71 86 101 116 131 147 163 172 157 143 128 115 102 90 80 71 65 64 65 71 80 90 102 115 128
128 121 116 113 112 113 116 121 128 137 147 150 143 136 131 128 128 128 131 136 143 150 160 170 176 160 144 128 113 97 81 65 50 35 22 16 22 35 50 65 81 97 113 128 144 160 176 164 150 137 124 113 102 93 86 81 80 81 86 93 102 113 124 137
115 107 101 97 96 97 101 107 115 124 135 137 128 121 116 113 112 113 116 121 128 137 147 158 170 160 144 128 112 96 80 64 48 32 16 0 16 32 48 64 80 96 112 128 144 160 176 173 160 147 135 124 115 107 101 97 96 97 101 107 115 124 135 147
102 93 86 81 80 81 86 93 102 113 124 124 115 107 101 97 96 97 101 107 115 124 135 147 160 160 144 128 113 97 81 65 50 35 22 16 22 35 50 65 81 97 113 128 144 160 176 182 170 158 147 137 128 121 116 113 112 113 116 121 128 137 147 158
90 80 71 65 64 65 71 80 90 102 115 113 102 93 86 81 80 81 86 93 102 113 124 137 150 163 147 131 116 101 86 71 57 45 35 32 35 45 57 71 86 101 116 131 147 163 178 192 181 170 160 150 143 136 131 128 128 128 131 136 143 150 160 170
80 67 57 50 48 50 57 67 80 93 107 102 90 80 71 65 64 65 71 80 90 102 115 128 143 157 151 136 121 107 93 80 67 57 50 48 50 57 67 80 93 107 121 136 151 167 182 194 192 182 173 164 157 151 147 144 144 144 147 151 157 164 173 182
71 57 45 35 32 35 45 57 71 86 101 93 80 67 57 50 48 50 57 67 80 93 107 121 136 151 157 143 128 115 102 90 80 71 65 64 65 71 80 90 102 115 128 143 157 172 182 178 176 176 176 178 172 167 163 160 160 160 163 167 172 178 186 195
65 50 35 22 16 22 35 50 65 81 97 86 71 57 45 35 32 35 45 57 71 86 101 116 131 147 163 150 137 124 113 102 93 86 81 80 81 86 93 102 113 124 137 150 164 172 167 163 160 160 160 163 167 172 178 176 176 176 178 182 187 193 200 208
64 48 32 16 0 16 32 48 64 80 96 81 65 50 35 22 16 22 35 50 65 81 97 113 128 144 160 158 147 135 124 115 107 101 97 96 97 101 107 115 124 135 147 160 164 157 151 147 144 144 144 147 151 157 164 173 182 192 194 197 202 208 214 222
65 50 35 22 16 22 35 50 65 81 96 80 64 48 32 16 0 16 32 48 64 80 96 112 128 144 160 147 135 124 115 107 101 97 96 97 101 107 115 124 135 147 158 160 150 143 136 131 128 128 128 131 136 143 150 160 170 181 192 204 217 222 229 236
71 57 45 35 32 35 45 57 71 86 93 81 65 50 35 22 16 22 35 50 65 81 97 113 128 144 150 137 124 113 102 93 86 81 80 81 86 93 102 113 124 137 150 147 137 128 121 116 113 112 113 116 121 128 137 147 158 170 182 195 208 222 236 250
80 67 57 50 48 50 57 64 65 71 80 86 71 57 45 35 32 35 45 57 71 86 101 116 131 147 143 128 115 102 90 80 71 65 64 65 71 80 90 102 115 128 143 135 124 115 107 101 97 96 97 101 107 115 124 135 147 160 173 186 200 214 229 243
90 80 71 65 64 57 50 48 50 57 67 80 80 67 57 50 48 50 57 67 80 93 107 121 136 151 136 121 107 93 80 67 57 50 48 50 57 67 80 93 107 121 136 124 113 102 93 86 81 80 81 86 93 102 113 124 137 150 164 178 193 208 222 237
102 93 86 71 57 45 35 32 35 45 57 71 86 80 71 65 64 65 71 80 90 102 115 128 143 147 131 116 101 86 71 57 45 35 32 35 45 57 71 86 101 116 128 115 102 90 80 71 65 64 65 71 80 90 102 115 128 143 157 172 187 202 217 232
113 97 81 65 50 35 22 16 22 35 50 65 81 93 86 81 80 81 86 93 102 113 124 137 150 144 128 113 97 81 65 50 35 22 16 22 35 50 65 81 97 113 121 107 93 80 67 57 50 48 50 57 67 80 93 107 121 136 151 167 182 197 213 229
112 96 80 64 48 32 16 0 16 32 48 64 80 96 101 97 96 97 101 107 115 124 135 147 160 144 128 112 96 80 64 48 32 16 0 16 32 48 64 80 96 112 116 101 86 71 57 45 35 32 35 45 57 71 86 101 116 131 147 163 178 194 210 226
113 97 81 65 50 35 22 16 22 35 50 65 81 97 113 113 112 113 112 113 116 121 128 137 147 144 128 113 97 81 65 50 35 22 16 22 35 50 65 81 97 113 113 97 81 65 50 35 22 16 22 35 50 65 81 97 113 128 144 160 176 192 208 224
116 101 86 71 57 45 35 32 35 45 57 71 86 101 115 107 101 97 96 97 101 107 115 124 135 147 131 116 101 86 71 57 45 35 32 35 45 57 71 86 101 116 112 96 80 64 48 32 16 0 16 32 48 64 80 96 112 128 144 160 176 192 208 224
121 107 93 80 67 57 50 48 50 57 67 80 93 107 102 93 86 81 80 81 86 93 102 113 124 137 136 121 107 93 80 67 57 50 48 50 57 67 80 93 107 121 113 97 81 65 50 35 22 16 22 35 50 65 81 97 113 128 144 160 176 192 208 224
128 115 102 90 80 71 65 64 65 71 80 90 102 102 90 80 71 65 64 65 71 80 90 102 115 128 143 128 115 102 90 80 71 65 64 65 71 80 90 102 115 128 116 101 86 71 57 45 35 32 35 45 57 71 86 101 116 131 147 163 178 194 210 226
137 124 113 102 93 86 81 80 81 86 93 102 107 93 80 67 57 50 48 50 57 67 80 93 107 121 136 137 124 113 102 93 86 81 80 81 86 93 102 113 124 136 121 107 93 80 67 57 50 48 50 57 67 80 93 107 121 136 151 167 182 197 213 229
147 135 124 115 107 101 97 96 97 101 107 115 101 86 71 57 45 35 32 35 45 57 71 86 101 116 131 147 135 124 115 107 101 97 96 97 101 107 115 124 135 143 128 115 102 90 80 71 65 64 65 71 80 90 102 115 128 143 157 172 187 202 217 232
158 147 137 128 121 116 113 112 113 116 121 113 97 81 65 50 35 22 16 22 35 50 65 81 97 113 128 144 147 137 128 121 116 113 112 113 116 121 128 137 147 150 137 124 113 102 93 86 81 80 81 86 93 102 113 124 137 150 164 178 193 208 222 237
170 160 150 143 136 131 128 128 128 131 128 112 96 80 64 48 32 16 0 16 32 48 64 80 96 112 128 144 160 150 143 136 131 128 128 128 131 136 143 150 160 160 147 135 124 115 107 101 97 96 97 101 107 115 124 135 147 160 173 186 200 214 229 243
182 173 164 157 151 147 144 144 144 144 128 113 97 81 65 50 35 22 16 22 35 50 65 81 97 113 128 144 160 164 157 151 147 144 144 144 147 151 157 164 173 170 158 147 137 128 121 116 113 112 113 116 121 128 137 147 158 170 182 195 208 222 236 250
195 186 178 172 167 163 160 160 160 147 131 116 101 86 71 57 45 35 32 35 45 57 71 86 101 116 131 147 163 178 172 167 163 160 160 160 163 167 172 178 173 160 147 135 124 115 107 101 97 96 97 101 107 115 124 135 147 160 173 186 200 214 229 243
208 200 193 187 182 178 176 176 167 151 136 121 107 93 80 67 57 50 48 50 57 67 80 93 107 121 136 151 167 182 187 182 178 176 176 176 178 182 187 178 164 150 137 124 113 102 93 86 81 80 81 86 93 102 113 124 137 150 164 178 193 208 222 237
214 208 202 197 194 192 192 187 172 157 143 128 115 102 90 80 71 65 64 65 71 80 90 102 115 128 143 157 172 187 202 197 194 192 187 182 178 176 176 172 157 143 128 115 102 90 80 71 65 64 65 71 80 90 102 115 128 143 157 172 187 202 217 232
200 193 187 182 178 176 176 176 178 164 150 137 124 113 102 93 86 81 80 81 86 93 102 113 124 137 147 158 170 182 195 195 186 178 172 167 163 160 160 160 151 136 121 107 93 80 67 57 50 48 50 57 67 80 93 107 121 136 151 167 182 197 213 229
186 178 172 167 163 160 160 160 163 167 160 147 135 124 115 107 101 97 96 97 96 97 101 107 115 124 135 147 160 173 186 182 173 164 157 151 147 144 144 144 147 131 116 101 86 71 57 45 35 32 35 45 57 71 86 101 116 131 147 163 178 194 210 226
173 164 157 151 147 144 144 144 147 151 157 158 147 137 124 113 102 93 86 81 80 81 86 93 102 113 124 137 150 164 178 170 160 150 143 136 131 128 128 128 131 128 113 97 81 65 50 35 22 16 22 35 50 65 81 97 113 128 144 160 176 192 208 224
160 150 143 136 131 128 128 128 131 136 143 150 143 128 115 102 90 80 71 65 64 65 71 80 90 102 115 128 143 157 170 158 147 137 128 121 116 113 112 113 116 121 112 96 80 64 48 32 16 0 16 32 48 64 80 96 112 128 144 160 176 192 208 224
147 137 128 121 116 113 112 113 116 121 128 137 136 121 107 93 80 67 57 50 48 50 57 67 80 93 107 121 136 151 160 147 135 124 115 107 101 97 96 97 101 107 113 97 81 65 50 35 22 16 22 35 50 65 81 97 113 128 144 160 176 192 208 224
135 124 115 107 101 97 96 97 101 107 115 124 131 116 101 86 71 57 45 35 32 35 45 57 71 86 101 116 131 147 150 137 124 113 102 93 86 81 80 81 86 93 102 101 86 71 57 45 35 32 35 45 57 71 86 101 116 131 147 163 178 194 210 226
124 113 102 93 86 81 80 81 86 93 102 113 124 113 97 81 65 50 35 22 16 22 35 50 65 81 97 113 128 144 143 128 115 102 90 80 71 65 64 65 71 80 90 102 93 80 67 57 50 48 50 57 67 80 93 107 121 136 151 167 182 197 213 229
115 102 90 80 71 65 64 65 71 80 90 102 115 112 96 80 64 48 32 16 0 16 32 48 64 80 96 112 128 144 136 121 107 93 80 67 57 50 48 50 57 67 80 93 102 90 80 71 65 64 65 71 80 90 102 115 128 143 157 172 187 202 217 232
107 93 80 67 57 50 48 50 57 67 80 93 107 113 97 81 65 50 35 22 16 22 35 50 65 81 97 113 128 144 131 116 101 86 71 57 45 35 32 35 45 57 71 86 101 102 93 86 81 80 81 86 93 102 113 124 137 150 164 178 193 208 222 237
101 86 71 57 45 35 32 35 45 57 71 86 101 115 101 86 71 57 45 35 32 35 45 57 71 86 101 116 131 144 128 113 97 81 65 50 35 22 16 22 35 50 65 81 97 113 107 101 97 96 97 101 107 115 124 135 147 160 173 186 200 214 229 243
97 81 65 50 35 22 16 22 35 50 65 81 97 102 93 86 80 67 57 50 48 50 57 67 80 93 107 121 136 144 128 112 96 80 64 48 32 16 0 16 32 48 64 80 96 112 121 116 113 112 113 116 121 128 137 147 158 170 182 195 208 222 236 250
96 80 64 48 32 16 0 16 32 48 64 80 96 90 80 71 65 64 65 65 64 65 71 80 90 102 115 128 143 144 128 113 97 81 65 50 35 22 16 22 35 50 65 81 97 113 128 131 128 128 128 131 136 143 150 160 170 181 192 204 217 230 244 255
97 81 65 50 35 22 16 22 35 50 65 81 93 80 67 57 50 48 50 57 67 80 86 93 102 113 124 137 150 147 131 116 101 86 71 57 45 35 32 35 45 57 71 86 101 116 131 136 143 144 144 147 151 157 164 173 182 192 203 215 227 240 252 255
101 86 71 57 45 35 32 35 45 57 71 86 86 71 57 45 35 32 35 45 57 71 86 101 115 124 135 147 160 151 136 121 107 93 80 67 57 50 48 50 57 67 80 93 107 113 116 121 128 137 147 158 167 172 178 186 195 204 214 222 230 240 249 255
107 93 80 67 57 50 48 50 57 67 80 93 81 65 50 35 22 16 22 35 50 65 81 97 113 128 144 158 170 157 143 128 115 102 90 80 71 65 64 65 71 80 90 97 96 97 101 107 115 124 135 147 160 173 178 182 187 193 200 208 217 227 237 248
115 102 90 80 71 65 64 65 71 80 90 96 80 64 48 32 16 0 16 32 48 64 80 96 112 128 144 160 176 164 150 137 124 113 102 93 86 81 80 81 86 93 86 81 80 81 86 93 102 113 124 137 150 160 163 167 172 178 186 195 204 215 226 237
113 112 102 93 86 81 80 81 86 93 102 97 81 65 50 35 22 16 22 35 50 65 81 97 113 128 144 160 176 173 160 147 135 124 115 107 101 97 96 97 90 80 71 65 64 65 71 80 90 102 115 128 143 144 147 151 157 164 173 182 192 203 215 227
97 96 97 101 101 97 96 97 101 107 115 101 86 71 57 45 35 32 35 45 57 71 86 101 116 131 147 163 178 182 170 158 147 137 128 121 116 113 107 93 80 67 57 50 48 50 57 67 80 93 107 121 128 128 131 136 143 150 160 170 181 192 204 217
81 80 81 86 93 102 112 113 116 121 121 107 93 80 67 57 50 48 50 57 67 80 93 107 121 136 151 167 182 192 181 170 160 150 143 136 131 116 101 86 71 57 45 35 32 35 45 57 71 86 101 113 112 113 116 121 128 137 147 158 170 182 195 208
65 64 65 71 80 90 102 115 128 136 128 115 102 90 80 71 65 64 65 71 80 90 102 115 128 143 157 172 187 202 192 182 173 164 157 144 128 113 97 81 65 50 35 22 16 22 35 50 65 81 97 97 96 97 101 107 115 124 135 147 160 173 186 200
50 48 50 57 67 80 93 107 121 136 137 124 113 102 93 86 81 80 81 86 93 102 113 124 137 150 164 178 193 208 204 195 186 176 160 144 128 112 96 80 64 48 32 16 0 16 32 48 64 80 86 81 80 81 86 93 102 113 124 137 150 164 178 193
35 32 35 45 57 71 86 101 116 131 147 135 124 115 107 101 97 96 97 101 107 115 124 135 147 160 173 186 200 214 217 208 192 176 160 144 128 113 97 81 65 50 35 22 16 22 35 50 65 80 71 65 64 65 71 80 90 102 115 128 143 157 172 187
22 16 22 35 50 65 81 97 113 128 144 147 137 128 121 116 113 112 113 116 121 128 137 147 158 170 182 195 208 222 226 210 194 178 163 147 131 116 101 86 71 57 45 35 32 35 45 57 71 67 57 50 48 50 57 67 80 93 107 121 136 151 167 182
16 0 16 32 48 64 80 96 112 128 144 160 150 143 136 131 128 128 128 131 136 143 150 160 170 181 192 204 217 230 229 213 197 182 167 151 136 121 107 93 80 67 57 50 48 50 57 67 71 57 45 35 32 35 45 57 71 86 101 116 131 147 163 178
22 16 22 35 50 65 81 97 113 128 144 160 164 157 151 147 144 144 144 147 151 157 164 173 182 192 203 215 227 240 232 217 202 187 172 157 143 128 115 102 90 80 71 65 64 65 71 80 65 50 35 22 16 22 35 50 65 81 97 113 128 144 160 176
35 32 35 45 57 71 86 101 116 131 147 163 178 172 167 163 160 160 160 163 167 172 178 186 195 204 215 226 237 249 237 222 208 193 178 164 150 137 124 113 102 93 86 81 80 81 86 80 64 48 32 16 0 16 32 48 64 80 96 112 128 144 160 176
50 48 50 57 67 80 93 107 121 136 151 167 182 187 182 178 176 176 176 178 182 187 193 200 208 217 227 237 248 255 243 229 214 200 186 173 160 147 135 124 115 107 101 97 96 97 97 81 65 50 35 22 16 22 35 50 65 81 97 113 128 144 160 176
65 64 65 71 80 90 102 115 128 143 157 172 187 202 197 194 192 192 192 194 197 202 208 214 222 230 240 249 255 255 250 236 222 208 195 182 170 158 147 137 128 121 116 113 112 113 101 86 71 57 45 35 32 35 45 57 71 86 101 116 131 147 163 178
81 80 81 86 93 102 113 124 137 150 164 178 193 208 213 210 208 208 208 210 213 217 222 229 236 244 252 255 255 255 255 244 230 217 204 192 181 170 160 150 143 136 131 128 128 121 107 93 80 67 57 50 48 50 57 67 80 93 107 121 136 151 167 182
97 96 97 101 107 115 124 135 147 160 173 186 200 214 229 226 224 224 224 226 229 232 237 243 250 255 255 255 255 255 255 252 240 227 215 203 192 182 173 164 157 151 147 144 143 128 115 102 90 80 71 65 64 65 71 80 90 102 115 128 143 157 172 187
113 112 113 116 121 128 137 147 158 170 182 195 208 222 236 242 240 240 240 242 244 248 252 255 255 255 255 255 255 255 255 255 249 237 226 215 204 195 186 178 172 167 163 160 150 137 124 113 102 93 86 81 80 81 86 93 102 113 124 137 150 164 178 193
